ply
format ascii 1.0
element vertex 453
property float x
property float y
property float z
end_header
0.742306649684906006 8.10227870941162109 6.33571577072143555
0.753504455089569092 8.10800647735595703 6.32884693145751953
0.792037904262542725 8.08852958679199219 6.31654167175292969
0.728145897388458252 8.07754421234130859 6.33745861053466797
0.73077017068862915 8.09453582763671875 6.33666849136352539
0.704855263233184814 8.04986381530761719 6.36844062805175781
0.691039085388183594 8.05850028991699219 6.369384765625
0.761888027191162109 8.07708263397216797 6.36010551452636719
0.69908440113067627 8.05976963043212891 6.35496854782104492
0.755444705486297607 8.13129711151123047 6.29513883590698242
0.681165039539337158 8.06861495971679688 6.38062191009521484
0.733686566352844238 8.10315418243408203 6.29097843170166016
0.809561312198638916 8.0948486328125 6.32516765594482422
0.799604356288909912 8.0848388671875 6.34012317657470703
0.718130528926849365 8.07111263275146484 6.33874797821044922
0.684688091278076172 8.06730461120605469 6.3680415153503418
0.680200457572937012 8.07790184020996094 6.36919593811035156
0.798506796360015869 8.12295436859130859 6.32003355026245117
0.799850881099700928 8.11180782318115234 6.34981107711791992
0.777478933334350586 8.10499858856201172 6.30248022079467773
0.794598996639251709 8.102325439453125 6.30533266067504883
0.727923929691314697 8.05899620056152344 6.34933996200561523
0.765520334243774414 8.09844207763671875 6.31596040725708008
0.806333541870117188 8.08793163299560547 6.32834339141845703
0.733501970767974854 8.07012176513671875 6.34116888046264648
0.768059790134429932 8.09262657165527344 6.33304929733276367
0.780953466892242432 8.14505767822265625 6.3588404655456543
0.70917588472366333 8.0650787353515625 6.34393644332885742
0.792938649654388428 8.13388633728027344 6.33228063583374023
0.73043590784072876 8.10147380828857422 6.28269195556640625
0.802385985851287842 8.09376621246337891 6.31592845916748047
0.752731919288635254 8.06908512115478516 6.36025047302246094
0.716869115829467773 8.10461902618408203 6.2799992561340332
0.735144197940826416 8.11234760284423828 6.29147052764892578
0.723988533020019531 8.06348991394042969 6.34297990798950195
0.759167850017547607 8.09791088104248047 6.33178329467773438
0.716125607490539551 8.05447483062744141 6.35368967056274414
0.748932242393493652 8.10326480865478516 6.29345798492431641
0.79169464111328125 8.13068962097167969 6.32064199447631836
0.777483284473419189 8.09076690673828125 6.31681060791015625
0.688438892364501953 8.05838298797607422 6.38159036636352539
0.697067677974700928 8.05127239227294922 6.38382577896118164
0.768021166324615479 8.10038280487060547 6.30563020706176758
0.724672257900238037 8.100067138671875 6.3030238151550293
0.787855267524719238 8.12595939636230469 6.39014148712158203
0.771008074283599854 8.11520195007324219 6.30170774459838867
0.811963021755218506 8.10571765899658203 6.33861255645751953
0.707125604152679443 8.05347442626953125 6.35638523101806641
0.677674770355224609 8.07909011840820312 6.3798670768737793
0.758771538734436035 8.13548088073730469 6.28803348541259766
0.738093316555023193 8.06528759002685547 6.34719944000244141
0.713838338851928711 8.04585170745849609 6.38277769088745117
0.717878282070159912 8.10400962829589844 6.30022716522216797
0.751595556735992432 8.15537071228027344 6.27827930450439453
0.787640631198883057 8.13677120208740234 6.34727001190185547
0.69512486457824707 8.05629348754882812 6.36423492431640625
0.749944984912872314 8.07152366638183594 6.42700290679931641
0.73902285099029541 8.06450176239013672 6.42811489105224609
0.76174694299697876 8.10800552368164062 6.30134487152099609
0.806212782859802246 8.11537837982177734 6.33677768707275391
0.784941136837005615 8.0883026123046875 6.33387041091918945
0.738002955913543701 8.08426666259765625 6.33833503723144531
0.784308969974517822 8.09447383880615234 6.30659246444702148
0.74415886402130127 8.10902023315429688 6.2901153564453125
0.789783596992492676 8.1017608642578125 6.41784906387329102
0.765805542469024658 8.13826179504394531 6.29529809951782227
0.751243412494659424 8.10200595855712891 6.30480718612670898
0.77765345573425293 8.09435462951660156 6.42121028900146484
0.764742553234100342 8.06952190399169922 6.37953615188598633
0.740023493766784668 8.07553482055664062 6.34136343002319336
0.792900979518890381 8.13844966888427734 6.3624720573425293
0.765066981315612793 8.12591838836669922 6.29730463027954102
0.764822304248809814 8.12899589538574219 6.31192207336425781
0.722082018852233887 8.04956626892089844 6.36820459365844727
0.741447627544403076 8.09987926483154297 6.29032468795776367
0.763817906379699707 8.13520717620849609 6.33697080612182617
0.743449926376342773 8.15335273742675781 6.28010463714599609
0.798425674438476562 8.1186981201171875 6.30872678756713867
0.729947149753570557 8.05645179748535156 6.35655021667480469
0.679883718490600586 8.09466075897216797 6.37508201599121094
0.734070003032684326 8.05512237548828125 6.3667454719543457
0.79975128173828125 8.08531951904296875 6.33124446868896484
0.711473941802978516 8.08102893829345703 6.3372960090637207
0.726707756519317627 8.06195259094238281 6.43080425262451172
0.731506466865539551 8.04716873168945312 6.38378190994262695
0.741357147693634033 8.06219100952148438 6.35511875152587891
0.77945631742477417 8.13771533966064453 6.33470821380615234
0.775699317455291748 8.13140201568603516 6.30933523178100586
0.698323607444763184 8.10799312591552734 6.35777091979980469
0.748051881790161133 8.07446384429931641 6.34765291213989258
0.721496284008026123 8.08736705780029297 6.33604240417480469
0.802824318408966064 8.11029148101806641 6.31355762481689453
0.714603424072265625 8.10262775421142578 6.34044027328491211
0.73789668083190918 8.16085720062255859 6.27019262313842773
0.750054597854614258 8.08896350860595703 6.34006452560424805
0.800771236419677734 8.10356903076171875 6.30867624282836914
0.799373805522918701 8.12954998016357422 6.36276817321777344
0.735654056072235107 8.11218929290771484 6.33810329437255859
0.75646507740020752 8.08273124694824219 6.3473515510559082
0.807143092155456543 8.09031581878662109 6.33997154235839844
0.682813286781311035 8.08184623718261719 6.36174869537353516
0.762459456920623779 8.14651584625244141 6.35959434509277344
0.770934164524078369 8.14847469329833984 6.36042308807373047
0.80106961727142334 8.11445426940917969 6.36152076721191406
0.785167574882507324 8.13182258605957031 6.31620645523071289
0.771320044994354248 8.08012771606445312 6.42490816116333008
0.761843264102935791 8.07361984252929688 6.42619514465332031
0.734128713607788086 8.16251182556152344 6.27817821502685547
0.726496577262878418 8.11047840118408203 6.2893986701965332
0.778008460998535156 8.09092140197753906 6.32694768905639648
0.793185532093048096 8.087249755859375 6.32880640029907227
0.742978930473327637 8.11287117004394531 6.30371236801147461
0.784066379070281982 8.09724903106689453 6.39026832580566406
0.737497448921203613 8.13759326934814453 6.36519813537597656
0.759562551975250244 8.06182479858398438 6.37783432006835938
0.750409364700317383 8.05490398406982422 6.37791585922241211
0.698177754878997803 8.05481433868408203 6.40851163864135742
0.688156366348266602 8.07977390289306641 6.35324478149414062
0.770891904830932617 8.08671092987060547 6.42021322250366211
0.778360068798065186 8.09106922149658203 6.34371423721313477
0.677970349788665771 8.08149909973144531 6.39171266555786133
0.71067500114440918 8.06573772430419922 6.43077421188354492
0.728474259376525879 8.13224887847900391 6.36148548126220703
0.697799324989318848 8.05184173583984375 6.37042427062988281
0.723264634609222412 8.13615131378173828 6.36656951904296875
0.756764352321624756 8.08003807067871094 6.42375326156616211
0.742833435535430908 8.06231307983398438 6.42418336868286133
0.697747170925140381 8.06006908416748047 6.42937326431274414
0.723372220993041992 8.10060310363769531 6.28104400634765625
0.752150118350982666 8.06254005432128906 6.41462039947509766
0.74279475212097168 8.05737781524658203 6.41709232330322266
0.797713518142700195 8.12680625915527344 6.34831333160400391
0.782238185405731201 8.11076545715332031 6.41260766983032227
0.764496743679046631 8.08725929260253906 6.41103982925415039
0.744055986404418945 8.06091213226318359 6.36494159698486328
0.760271668434143066 8.07890796661376953 6.41262006759643555
0.759194791316986084 8.07040596008300781 6.41162538528442383
0.758082091808319092 8.11830425262451172 6.3109288215637207
0.80131155252456665 8.12613868713378906 6.33461904525756836
0.746807217597961426 8.14050197601318359 6.29477977752685547
0.797823607921600342 8.12148857116699219 6.34828710556030273
0.709249019622802734 8.05756664276123047 6.42077016830444336
0.699612438678741455 8.05521965026855469 6.4198150634765625
0.767702639102935791 8.08878040313720703 6.34624147415161133
0.744730532169342041 8.15511226654052734 6.29365158081054688
0.714203894138336182 8.04736042022705078 6.37234592437744141
0.726765990257263184 8.10705852508544922 6.28227901458740234
0.800198554992675781 8.10599040985107422 6.36728143692016602
0.75631183385848999 8.06806182861328125 6.37019443511962891
0.778053402900695801 8.10790538787841797 6.40350818634033203
0.775254905223846436 8.09490299224853516 6.40752935409545898
0.809274911880493164 8.09787082672119141 6.34341764450073242
0.716001391410827637 8.06041812896728516 6.34509897232055664
0.759794414043426514 8.09056472778320312 6.33964204788208008
0.785391926765441895 8.08994293212890625 6.34214496612548828
0.752943038940429688 8.14738559722900391 6.29724454879760742
0.775411784648895264 8.09182262420654297 6.30896329879760742
0.777644932270050049 8.09962177276611328 6.40561103820800781
0.703891456127166748 8.10774040222167969 6.28238868713378906
0.792736709117889404 8.13395786285400391 6.34683847427368164
0.781113266944885254 8.12105274200439453 6.30119228363037109
0.74618840217590332 8.09364414215087891 6.33748197555541992
0.789566755294799805 8.11320877075195312 6.3018646240234375
0.7775229811668396 8.14177417755126953 6.34808492660522461
0.747942924499511719 8.08362102508544922 6.34265613555908203
0.737217068672180176 8.16242790222167969 6.28930568695068359
0.791731297969818115 8.12849903106689453 6.38435697555541992
0.70409238338470459 8.1074371337890625 6.28902101516723633
0.768982052803039551 8.1282501220703125 6.40198326110839844
0.724764466285705566 8.10687923431396484 6.34002542495727539
0.760183930397033691 8.13775444030761719 6.30679893493652344
0.74268728494644165 8.12035655975341797 6.33517074584960938
0.753253281116485596 8.14560794830322266 6.30379390716552734
0.772455573081970215 8.11819553375244141 6.4029693603515625
0.760431826114654541 8.06681156158447266 6.40126180648803711
0.753269672393798828 8.05842208862304688 6.40393495559692383
0.74173969030380249 8.05240821838378906 6.40626955032348633
0.7468833327293396 8.06826305389404297 6.35194015502929688
0.687657713890075684 8.05341243743896484 6.4212040901184082
0.740810692310333252 8.04968929290771484 6.3804473876953125
0.775400519371032715 8.09108924865722656 6.39617204666137695
0.764028728008270264 8.08341598510742188 6.39778995513916016
0.735845625400543213 8.11349391937255859 6.29736185073852539
0.782701671123504639 8.10382843017578125 6.39516878128051758
0.77179265022277832 8.12946987152099609 6.29842996597290039
0.75440138578414917 8.12783622741699219 6.33362817764282227
0.689725279808044434 8.09983730316162109 6.36021518707275391
0.687321066856384277 8.05182266235351562 6.41144418716430664
0.789281904697418213 8.14014339447021484 6.35769748687744141
0.758466958999633789 8.14796924591064453 6.28917360305786133
0.748279988765716553 8.11583614349365234 6.33140039443969727
0.766344428062438965 8.08008193969726562 6.38630867004394531
0.750113070011138916 8.13840675354003906 6.34824991226196289
0.769424080848693848 8.13943672180175781 6.3430638313293457
0.749877512454986572 8.14365768432617188 6.36187934875488281
0.778360903263092041 8.09719085693359375 6.39620018005371094
0.755508065223693848 8.10564517974853516 6.3149409294128418
0.777533173561096191 8.135894775390625 6.32327365875244141
0.738491535186767578 8.13256549835205078 6.35058069229125977
0.702566087245941162 8.12693881988525391 6.3669891357421875
0.70739293098449707 8.11538410186767578 6.35579299926757812
0.73267596960067749 8.104278564453125 6.30318546295166016
0.717461705207824707 8.12127971649169922 6.35381507873535156
0.808176875114440918 8.10232067108154297 6.31987762451171875
0.764710783958435059 8.13251304626464844 6.32602119445800781
0.690231263637542725 8.0583343505859375 6.40392541885375977
0.74003911018371582 8.12551784515380859 6.34044075012207031
0.708903968334197998 8.10368156433105469 6.29530668258666992
0.754349827766418457 8.11433029174804688 6.30065679550170898
0.694386601448059082 8.11848735809326172 6.36906862258911133
0.795738935470581055 8.11987686157226562 6.38363218307495117
0.7557411789894104 8.13080787658691406 6.30489110946655273
0.791104137897491455 8.11286067962646484 6.38959550857543945
0.750402629375457764 8.14460945129394531 6.37303876876831055
0.776356697082519531 8.08736038208007812 6.38514041900634766
0.762592077255249023 8.06341457366943359 6.39082860946655273
0.753252804279327393 8.05492305755615234 6.39264297485351562
0.741193950176239014 8.04924774169921875 6.39276647567749023
0.786239504814147949 8.12639808654785156 6.30791378021240234
0.685165762901306152 8.07118034362792969 6.36184549331665039
0.795543193817138672 8.10198211669921875 6.37952566146850586
0.786849021911621094 8.09326457977294922 6.38293838500976562
0.676425933837890625 8.08862400054931641 6.38160514831542969
0.794034183025360107 8.10887622833251953 6.4198145866394043
0.751735210418701172 8.14441013336181641 6.28333091735839844
0.751616835594177246 8.13400363922119141 6.29855155944824219
0.741214513778686523 8.14843082427978516 6.28946781158447266
0.795958280563354492 8.09855175018310547 6.36789178848266602
0.761931002140045166 8.10140037536621094 6.32140636444091797
0.802757084369659424 8.10051631927490234 6.34891700744628906
0.730094432830810547 8.0470733642578125 6.39585161209106445
0.703728199005126953 8.09578037261962891 6.34211111068725586
0.786187171936035156 8.08974170684814453 6.36911678314208984
0.775375485420227051 8.08414554595947266 6.37236118316650391
0.76485210657119751 8.07567119598388672 6.37280035018920898
0.725952267646789551 8.04627418518066406 6.38825368881225586
0.70195692777633667 8.07623577117919922 6.34212684631347656
0.72732841968536377 8.12632083892822266 6.35173988342285156
0.726381421089172363 8.04703807830810547 6.38019943237304688
0.710135400295257568 8.10812282562255859 6.3463902473449707
0.756875038146972656 8.10830116271972656 6.29642581939697266
0.678918838500976562 8.08680820465087891 6.37389516830444336
0.80533599853515625 8.11314773559570312 6.32440471649169922
0.793400704860687256 8.09670162200927734 6.3535161018371582
0.773703277111053467 8.08464908599853516 6.35926914215087891
0.735942423343658447 8.05133533477783203 6.37511539459228516
0.783719837665557861 8.09008979797363281 6.35858535766601562
0.795925617218017578 8.08869457244873047 6.34603738784790039
0.75578606128692627 8.11166000366210938 6.31863164901733398
0.756549477577209473 8.12218475341796875 6.32451534271240234
0.707915782928466797 8.10822868347167969 6.27975702285766602
0.728027701377868652 8.11031818389892578 6.29866552352905273
0.781767368316650391 8.09208011627197266 6.35075187683105469
0.769022583961486816 8.08437442779541016 6.35390806198120117
0.761536896228790283 8.07963466644287109 6.35536527633666992
0.714034318923950195 8.04941082000732422 6.36431360244750977
0.750068545341491699 8.11251068115234375 6.31153964996337891
0.762285351753234863 8.07610702514648438 6.43297052383422852
0.71567922830581665 8.10544395446777344 6.29152202606201172
0.789736568927764893 8.10365104675292969 6.42595386505126953
0.737389624118804932 8.07041645050048828 6.4357914924621582
0.777588367462158203 8.09663772583007812 6.42791223526000977
0.761827647686004639 8.14180755615234375 6.34844303131103516
0.717996001243591309 8.06091785430908203 6.42787313461303711
0.676816463470458984 8.09024620056152344 6.38778209686279297
0.79676973819732666 8.12883472442626953 6.37452793121337891
0.684018194675445557 8.06232452392578125 6.42795181274414062
0.727914631366729736 8.05650234222412109 6.42030572891235352
0.699445784091949463 8.10018444061279297 6.34701204299926758
0.738364279270172119 8.09968662261962891 6.30503129959106445
0.716409623622894287 8.05501556396484375 6.4179682731628418
0.679403066635131836 8.05836296081542969 6.42146682739257812
0.686795532703399658 8.11031818389892578 6.37465953826904297
0.733180880546569824 8.05441951751708984 6.41532421112060547
0.705294966697692871 8.04711246490478516 6.38453578948974609
0.721402168273925781 8.10171699523925781 6.29610586166381836
0.73330610990524292 8.05078506469726562 6.40669488906860352
0.726269185543060303 8.05048942565917969 6.40679740905761719
0.715338587760925293 8.05117416381835938 6.40745162963867188
0.706647217273712158 8.05183696746826172 6.40799570083618164
0.678692042827606201 8.05680751800537109 6.4083099365234375
0.679419279098510742 8.09837818145751953 6.38923883438110352
0.745721340179443359 8.16217803955078125 6.27273368835449219
0.781621217727661133 8.12345027923583984 6.39596891403198242
0.800134658813476562 8.11657905578613281 6.37511634826660156
0.694185972213745117 8.086456298828125 6.34680700302124023
0.714658260345458984 8.04741764068603516 6.39644908905029297
0.705755472183227539 8.04924201965332031 6.39692544937133789
0.69780731201171875 8.05256843566894531 6.39638090133666992
0.687881946563720703 8.06015396118164062 6.39566326141357422
0.786115348339080811 8.13732051849365234 6.38264083862304688
0.730437994003295898 8.11971664428710938 6.34349536895751953
0.788850367069244385 8.13539600372314453 6.33916187286376953
0.708109021186828613 8.10927867889404297 6.28759193420410156
0.701159477233886719 8.10368633270263672 6.43109369277954102
0.696488320827484131 8.11269092559814453 6.42888832092285156
0.720178663730621338 8.0719451904296875 6.4357914924621582
0.685616016387939453 8.07897567749023438 6.43107271194458008
0.695455253124237061 8.10152053833007812 6.42637252807617188
0.691989004611968994 8.11221218109130859 6.42217063903808594
0.681918144226074219 8.08686923980712891 6.42506170272827148
0.692085444927215576 8.06908035278320312 6.43261289596557617
0.678875446319580078 8.07379436492919922 6.42714071273803711
0.683151006698608398 8.090606689453125 6.3633265495300293
0.689495861530303955 8.09500503540039062 6.42407560348510742
0.713705658912658691 8.13127994537353516 6.36374092102050781
0.729539155960083008 8.14846420288085938 6.42112302780151367
0.687416970729827881 8.10541057586669922 6.41892623901367188
0.674158871173858643 8.06706714630126953 6.40606260299682617
0.673151493072509766 8.07847404479980469 6.41766071319580078
0.673500359058380127 8.06988525390625 6.42026662826538086
0.678839206695556641 8.08627128601074219 6.41545534133911133
0.733443200588226318 8.15803146362304688 6.28280305862426758
0.684233307838439941 8.09395694732666016 6.41472911834716797
0.683460235595703125 8.10269260406494141 6.41106748580932617
0.720192849636077881 8.11442184448242188 6.34521245956420898
0.739063382148742676 8.15198040008544922 6.41832971572875977
0.707700490951538086 8.13179302215576172 6.41693115234375
0.771908164024353027 8.14707660675048828 6.41874790191650391
0.680292665958404541 8.07113361358642578 6.40221691131591797
0.681832969188690186 8.10560512542724609 6.3835139274597168
0.72772371768951416 8.14585208892822266 6.41328096389770508
0.686782240867614746 8.11267566680908203 6.4133915901184082
0.769688546657562256 8.08070564270019531 6.43165302276611328
0.692711710929870605 8.09540271759033203 6.35107517242431641
0.680476546287536621 8.09974956512451172 6.39964103698730469
0.679219245910644531 8.08391761779785156 6.40344715118408203
0.673496067523956299 8.0764312744140625 6.40920734405517578
0.811298727989196777 8.10185527801513672 6.32952690124511719
0.681325674057006836 8.06999874114990234 6.39378261566162109
0.749321043491363525 8.15458583831787109 6.30045604705810547
0.744461715221405029 8.14393138885498047 6.41221809387207031
0.744006097316741943 8.15692806243896484 6.27172040939331055
0.747587382793426514 8.15888404846191406 6.27130222320556641
0.691866755485534668 8.07053375244140625 6.3532867431640625
0.758634805679321289 8.14725685119628906 6.28317499160766602
0.685546517372131348 8.10530948638916016 6.37276887893676758
0.765691578388214111 8.07076168060302734 6.38821506500244141
0.781998097896575928 8.12939548492431641 6.42076587677001953
0.789084732532501221 8.11841583251953125 6.42283105850219727
0.788971781730651855 8.11613559722900391 6.41678094863891602
0.793868601322174072 8.11046409606933594 6.42401552200317383
0.778487980365753174 8.13949680328369141 6.42023897171020508
0.778743445873260498 8.13747787475585938 6.41263103485107422
0.7772255539894104 8.12060165405273438 6.41485261917114258
0.779194295406341553 8.12898635864257812 6.41477727890014648
0.771108269691467285 8.13220119476318359 6.40878009796142578
0.761507034301757812 8.07739162445068359 6.40166378021240234
0.790569007396697998 8.10345077514648438 6.38839197158813477
0.711023092269897461 8.140838623046875 6.3760533332824707
0.743950605392456055 8.14677238464355469 6.4205322265625
0.713561296463012695 8.12853527069091797 6.42583465576171875
0.770998537540435791 8.14527320861816406 6.41255903244018555
0.735877811908721924 8.14893436431884766 6.41284704208374023
0.760549366474151611 8.14238262176513672 6.41128158569335938
0.747673571109771729 8.13717079162597656 6.41442394256591797
0.735929131507873535 8.13716602325439453 6.41245317459106445
0.733014106750488281 8.13548946380615234 6.40104007720947266
0.747120022773742676 8.13606357574462891 6.40020322799682617
0.760482311248779297 8.13750076293945312 6.39861392974853516
0.723806083202362061 8.14097499847412109 6.39991617202758789
0.752543151378631592 8.13206195831298828 6.33803606033325195
0.716033339500427246 8.14058303833007812 6.40273618698120117
0.77049553394317627 8.14342594146728516 6.38450336456298828
0.780930161476135254 8.13642692565917969 6.38861942291259766
0.714064300060272217 8.14279842376708984 6.38950920104980469
0.725146949291229248 8.14104938507080078 6.3890385627746582
0.733570098876953125 8.13538837432861328 6.39066505432128906
0.719455897808074951 8.13906478881835938 6.42363405227661133
0.778728961944580078 8.14507484436035156 6.37897062301635742
0.699446916580200195 8.08404445648193359 6.34227657318115234
0.789468884468078613 8.13979053497314453 6.37244081497192383
0.778706252574920654 8.14670753479003906 6.37189006805419922
0.724785983562469482 8.14145278930664062 6.37666225433349609
0.733152270317077637 8.13636589050292969 6.37480735778808594
0.763832211494445801 8.14892673492431641 6.37207412719726562
0.754526793956756592 8.146240234375 6.42012500762939453
0.686644852161407471 8.11446475982666016 6.38348960876464844
0.706795215606689453 8.13653850555419922 6.37012147903442383
0.717237174510955811 8.13899421691894531 6.41464710235595703
0.717574059963226318 8.12625217437744141 6.3613433837890625
0.761805593967437744 8.14309597015380859 6.42088031768798828
0.695773005485534668 8.11207866668701172 6.36566448211669922
0.724505603313446045 8.09993743896484375 6.33752632141113281
0.688127696514129639 8.117218017578125 6.40867280960083008
0.703247427940368652 8.13559150695800781 6.379241943359375
0.702241241931915283 8.12259101867675781 6.42314958572387695
0.686409115791320801 8.11601543426513672 6.39601469039916992
0.716640472412109375 8.09496116638183594 6.33697223663330078
0.706444740295410156 8.08880996704101562 6.33888578414916992
0.704431772232055664 8.11999416351318359 6.42812108993530273
0.696836948394775391 8.08807468414306641 6.43383646011352539
0.698543906211853027 8.12433147430419922 6.41603708267211914
0.692428648471832275 8.11874580383300781 6.4161372184753418
0.695907235145568848 8.12586688995361328 6.40612411499023438
0.704860866069793701 8.13433742523193359 6.40473175048828125
0.740115225315093994 8.13164901733398438 6.40057992935180664
0.702826082706451416 8.13476467132568359 6.39113092422485352
0.694126009941101074 8.12569427490234375 6.39387893676757812
0.759229779243469238 8.14034366607666016 6.38940954208374023
0.743098914623260498 8.13695049285888672 6.38615131378173828
0.710324287414550781 8.14184188842773438 6.38659238815307617
0.754034519195556641 8.14355564117431641 6.3817744255065918
0.762167632579803467 8.14626407623291016 6.38177347183227539
0.692864418029785156 8.12421226501464844 6.38257026672363281
0.698769688606262207 8.13106822967529297 6.37937784194946289
0.716376364231109619 8.14263153076171875 6.37485980987548828
0.739691019058227539 8.13755702972412109 6.37688636779785156
0.770835280418395996 8.14883327484130859 6.37413883209228516
0.723173916339874268 8.13379669189453125 6.42353248596191406
0.735241830348968506 8.13958263397216797 6.42101001739501953
0.715769588947296143 8.12268161773681641 6.42333507537841797
0.725021958351135254 8.1296844482421875 6.42120170593261719
0.709088623523712158 8.10938262939453125 6.42908811569213867
0.711230218410491943 8.11108875274658203 6.42570114135742188
0.720405101776123047 8.11540317535400391 6.42369794845581055
0.730171680450439453 8.12162590026855469 6.42217636108398438
0.751667439937591553 8.13590240478515625 6.42250537872314453
0.706006288528442383 8.09395313262939453 6.43289661407470703
0.740417063236236572 8.12820339202880859 6.42042207717895508
0.717818558216094971 8.10087299346923828 6.4310307502746582
0.718488574028015137 8.1063079833984375 6.4270634651184082
0.726903617382049561 8.10574722290039062 6.42589569091796875
0.757577359676361084 8.1260528564453125 6.4239802360534668
0.736948728561401367 8.11208438873291016 6.42400932312011719
0.705468416213989258 8.07730960845947266 6.43558549880981445
0.768024325370788574 8.13293838500976562 6.42264080047607422
0.74489825963973999 8.11905956268310547 6.42226696014404297
0.725440323352813721 8.10000801086425781 6.42982339859008789
0.713774979114532471 8.0816650390625 6.4348602294921875
0.751471877098083496 8.12073802947998047 6.4260096549987793
0.724489510059356689 8.09059429168701172 6.43297529220581055
0.726706326007843018 8.09730243682861328 6.43090438842773438
0.702662467956542969 8.07256698608398438 6.43491125106811523
0.733477234840393066 8.09610366821289062 6.42763423919677734
0.758122563362121582 8.11225795745849609 6.4260106086730957
0.743433594703674316 8.10235595703125 6.42572641372680664
0.750367581844329834 8.10699462890625 6.42479944229125977
0.775561332702636719 8.12400531768798828 6.4239501953125
0.730219662189483643 8.08864688873291016 6.42988872528076172
0.727007865905761719 8.07833194732666016 6.4344029426574707
0.730588018894195557 8.08012580871582031 6.4306950569152832
0.740245044231414795 8.08594703674316406 6.42856550216674805
0.762591421604156494 8.10163497924804688 6.42743539810180664
0.759713113307952881 8.09574508666992188 6.42602109909057617
0.75001978874206543 8.09262180328369141 6.42691230773925781
0.770440399646759033 8.10597610473632812 6.42724418640136719
0.729083895683288574 8.06598091125488281 6.43669223785400391
0.781564772129058838 8.11332321166992188 6.42517614364624023
0.775551378726959229 8.13329219818115234 6.39399290084838867
0.749512553215026855 8.07430648803710938 6.43432474136352539
0.768510818481445312 8.08899402618408203 6.43043947219848633
0.759379029273986816 8.08009719848632812 6.43276357650756836
